-10.6327 112.629 -6.02395 0.0935998 -0.961606 -0.256251
-10.4797 112.642 -6.02125 0.0764312 -0.969302 -0.232812
-9.63143 112.937 -6.88279 0.0367383 -0.968792 -0.241191
-9.15224 113.1 -7.71054 -0.00662987 -0.982158 -0.187941
-9.72344 113.026 -7.25373 -0.002967 -0.969855 -0.23605
-10.3052 112.797 -6.54384 0.0545155 -0.960792 -0.271856
-10.5935 112.652 -6.08716 0.0713258 -0.957676 -0.278273
-11.2123 112.703 -6.44972 0.0881362 -0.954559 -0.28469
-10.4406 113.059 -7.54547 0.0563034 -0.967236 -0.247558
-9.71082 113.285 -8.37913 -0.0586525 -0.978356 -0.196299
-8.78938 113.364 -9.3486 -0.104099 -0.987115 -0.121523
-8.02816 113.394 -10.1748 -0.2045 -0.948776 0.0714872
-7.32535 112.913 -11.1987 -0.430815 -0.899012 0.0784584
-6.47743 112.381 -12.3391 -0.454852 -0.888903 0.0360916
-5.83603 112.07 -12.978 -0.437759 -0.898888 -0.0102027
-5.05504 111.651 -13.7849 -0.530167 -0.847712 -0.0174961
-4.33845 111.21 -14.4576 -0.541 -0.841016 -0.00327921
-3.57072 110.718 -15.0377 -0.550935 -0.834276 0.0103478
-2.50424 109.978 -15.591 -0.563554 -0.825752 0.0231202
-1.26091 109.098 -16.0504 -0.570589 -0.820193 0.0411505
-0.277323 108.311 -16.3348 -0.603737 -0.792105 0.0897759
0.745113 107.345 -16.4544 -0.675656 -0.707397 0.207553
2.01027 106.485 -16.6332 -0.427111 -0.894194 0.134138
2.94532 106.046 -16.7545 -0.422681 -0.873471 0.241637
3.82351 105.659 -16.7758 -0.323536 -0.90111 0.288615
4.55183 105.528 -16.3781 -0.319696 -0.903315 0.286035
4.12052 105.955 -15.5698 -0.328547 -0.880177 0.342556
3.05014 106.318 -15.0693 -0.145996 -0.981049 0.127393
2.19732 106.694 -14.7536 -0.525406 -0.829009 0.191552
1.21494 107.414 -14.4635 -0.562107 -0.822739 0.0844755
0.40924 108.082 -14.16 -0.60862 -0.785254 0.111973
-0.705003 108.823 -13.7773 -0.547016 -0.836699 0.0256771
-1.61974 109.439 -13.4798 -0.557296 -0.829758 0.0294651
-2.47828 110.059 -13.1027 -0.574141 -0.817224 0.0500638
-3.49028 110.752 -12.5935 -0.52257 -0.85057 0.0587517
-4.21785 111.231 -12.0836 -0.487756 -0.871608 0.0294379
-4.87702 111.59 -11.4595 -0.461149 -0.886777 0.031113
-5.46378 111.941 -10.7647 -0.478054 -0.876403 0.0581604
-6.11788 112.426 -9.96498 -0.518161 -0.838241 0.169885
-6.86037 112.951 -9.08637 -0.554717 -0.82929 -0.0675766
-7.56999 113.145 -8.29516 -0.0669811 -0.987834 -0.137429
-8.25771 113.055 -7.50319 -0.0339104 -0.983267 -0.176521
-8.78553 112.902 -6.75529 -0.0054147 -0.973165 -0.230044
-9.35942 112.713 -5.94204 0.0367321 -0.968792 -0.241189
-10.0502 112.479 -5.12941 0.0739726 -0.974183 -0.213297
-10.8458 112.248 -4.45694 0.112523 -0.969055 -0.219706
-11.7631 112.026 -3.94477 0.113871 -0.969961 -0.214901
-12.3678 112.056 -4.45284 0.156364 -0.959521 -0.234244
-12.0436 112.302 -5.302 0.138665 -0.964965 -0.222745
-11.2818 112.663 -6.3377 0.0881361 -0.954559 -0.28469
-11.8147 112.804 -6.88271 0.0524892 -0.951075 -0.304468
-12.4487 112.482 -6.02358 0.0657666 -0.953292 -0.294803
-12.921 112.184 -5.22464 0.116845 -0.949052 -0.292575
-13.4227 111.769 -3.97988 0.156361 -0.960185 -0.231491
-12.5465 111.659 -2.91723 0.126065 -0.959581 -0.248965
-11.1308 111.912 -3.15494 0.153753 -0.951405 -0.266813
-10.4293 112.132 -3.70477 0.115218 -0.970868 -0.210096
-9.65943 112.327 -4.34255 0.0569102 -0.973152 -0.223017
-8.57861 112.68 -5.72173 0.022708 -0.97575 -0.217709
-7.96391 112.847 -6.46179 -0.0574798 -0.976937 -0.189811
-7.12414 112.947 -7.52153 -0.127469 -0.96922 -0.21063
-6.41455 112.722 -8.4665 -0.437774 -0.898975 0.0140888
-5.89766 112.377 -9.13206 -0.542202 -0.839339 0.0390663
-5.29435 111.918 -9.88356 -0.477099 -0.875124 0.0808331
-4.42085 111.384 -10.5813 -0.469606 -0.881587 0.0446363
-3.8807 111.063 -11.4572 -0.523653 -0.849791 0.0461084
-2.88957 110.391 -12.035 -0.540741 -0.841032 0.0162346
-1.64583 109.493 -12.6518 -0.578582 -0.814776 0.0371781
-0.48027 108.701 -12.9676 -0.547019 -0.836698 0.0256692
0.795928 107.874 -13.5842 -0.529754 -0.847551 0.0319041
1.54619 107.315 -13.7235 -0.486561 -0.853547 0.185986
2.34224 106.824 -13.8701 -0.506222 -0.837374 0.204898
3.55425 106.363 -14.4187 -0.111389 -0.974297 0.195802
4.29853 106.126 -14.8814 -0.37494 -0.879285 0.293732
5.20493 105.53 -15.5541 -0.355223 -0.890512 0.283979
5.37841 105.004 -17.0415 -0.362283 -0.890366 0.275678
4.54817 105.146 -17.6277 -0.329672 -0.903267 0.274351
3.20045 105.696 -17.5411 -0.404976 -0.880908 0.243898
2.2687 106.192 -17.4195 -0.435116 -0.866132 0.245795
1.07647 106.837 -17.2093 -0.494302 -0.848914 0.143167
0.377582 107.529 -17.2087 -0.713698 -0.693463 0.0987168
-0.24261 108.178 -17.1353 -0.713696 -0.693465 0.098717
-1.34531 109.111 -16.9053 -0.596339 -0.800807 0.0471426
-2.38221 109.852 -16.5034 -0.559141 -0.828027 0.0401068
-3.33285 110.509 -16.0543 -0.556541 -0.829522 0.0464278
-4.02389 111.002 -15.6071 -0.548291 -0.835522 0.027194
-4.83644 111.511 -14.9704 -0.483059 -0.874963 0.0324024
-5.50783 111.903 -14.5032 -0.488254 -0.872653 0.00915296
-6.35177 112.344 -13.64 -0.443304 -0.896017 -0.0251916
-7.00669 112.629 -12.8524 -0.424878 -0.904655 0.00544947
-8.06386 113.21 -11.8516 -0.430809 -0.899014 0.0784625
-8.55804 113.45 -10.6665 -0.095271 -0.994393 0.0311584
-9.73184 113.495 -9.59991 -0.0795821 -0.985679 -0.144775
-10.506 113.33 -8.52334 -0.0117554 -0.98539 -0.169905
-11.1252 113.126 -7.85555 0.0471571 -0.960354 -0.274766
-11.6568 112.89 -7.12201 0.0498175 -0.955716 -0.289615
-11.6647 112.885 -7.10986 0.0524835 -0.951076 -0.304466
-8.04667 113.26 -9.02369 -0.0751058 -0.990777 -0.11272
-7.2704 113.267 -9.59268 -0.31375 -0.910288 -0.0886762
-7.97612 113.264 -9.09704 -0.0774489 -0.990263 -0.115673
-7.99036 113.263 -9.08205 -0.0774425 -0.990264 -0.115671
-6.8531 112.823 -10.2736 -0.566329 -0.801649 0.191394
-6.80751 112.784 -10.302 -0.542247 -0.819944 0.180636
-6.38587 112.432 -10.9803 -0.480843 -0.874888 0.0579746
-5.74476 112.041 -11.564 -0.479162 -0.875471 0.0626823
-6.45851 112.454 -11.2587 -0.47917 -0.875467 0.0626808
-5.01825 111.655 -12.5034 -0.467349 -0.884072 -0.00148802
-4.77042 111.524 -12.53 -0.467348 -0.884072 -0.00148356
-4.29071 111.169 -13.5894 -0.519166 -0.853428 0.0214276
-3.43597 110.654 -13.546 -0.521453 -0.851361 0.0572004
-2.4916 110.018 -13.9309 -0.568767 -0.821452 0.0395533
-1.59314 109.391 -14.3385 -0.557296 -0.829758 0.0294735
-0.726478 108.806 -14.5679 -0.554357 -0.831542 0.0350199
0.0234377 108.269 -14.8156 -0.593599 -0.795567 0.121296
0.735091 107.693 -15.115 -0.60862 -0.785254 0.111973
1.50477 107.02 -15.4635 -0.609928 -0.764885 0.207216
1.19157 107.18 -15.7648 -0.594103 -0.767735 0.240051
0.211849 108.033 -15.5275 -0.601194 -0.793937 0.0907187
-0.783446 108.81 -15.3507 -0.580194 -0.810959 0.0626571
-1.86923 109.558 -15.0176 -0.567893 -0.82267 0.0262522
-2.7136 110.147 -14.6723 -0.563555 -0.825751 0.0231286
-3.59844 110.733 -14.1585 -0.540281 -0.841479 -0.00312679
-4.11142 111.061 -13.8231 -0.535586 -0.844363 -0.0103923
2.03506 106.616 -15.8824 -0.353945 -0.923459 0.127678
3.08981 106.199 -15.951 -0.385869 -0.894253 0.221902
2.46243 106.455 -15.823 -0.358852 -0.931878 0.0531822
2.38686 106.486 -15.7995 -0.358848 -0.93188 0.0531788
